-0.223073 0.409848 -0.154208
-0.226825 0.412169 -0.14763
-0.229716 0.414417 -0.141109
-0.2221 0.416591 -0.134646
-0.224081 0.418692 -0.12824
-0.221039 0.42072 -0.121891
-0.22144 0.422675 -0.115599
-0.226566 0.424556 -0.109365
-0.231834 0.426364 -0.103188
-0.227592 0.428099 -0.0970677
-0.2306 0.429761 -0.0910052
-0.222282 0.431349 -0.0849999
-0.230942 0.432864 -0.0790519
-0.223378 0.434306 -0.0731611
-0.222529 0.435675 -0.0673276
-0.220497 0.43697 -0.0615514
-0.220458 0.438192 -0.0558325
-0.225609 0.439341 -0.0501708
-0.228516 0.440417 -0.0445664
-0.230191 0.441419 -0.0390192
-0.229778 0.442349 -0.0335293
-0.222575 0.443204 -0.0280967
-0.233408 0.443987 -0.0227214
-0.228736 0.444697 -0.0174033
-0.232494 0.445333 -0.0121425
-0.224737 0.445896 -0.006939
-0.232977 0.446386 -0.00179273
-0.233606 0.446802 0.00329626
-0.221532 0.447145 0.00832799
-0.230062 0.447415 0.0133024
-0.230102 0.447612 0.0182196
-0.225922 0.447736 0.0230796
-0.224552 0.447786 0.0278822
-0.222609 0.447763 0.0326276
-0.224083 0.447667 0.0373157
-0.227288 0.447497 0.0419466
-0.230998 0.447255 0.0465201
-0.223854 0.446939 0.0510365
-0.227507 0.44655 0.0554955
-0.227646 0.446087 0.0598973
-0.221129 0.445552 0.0642418
-0.223845 0.444943 0.068529
-0.232286 0.444261 0.072759
-0.225774 0.443505 0.0769317
-0.228611 0.442677 0.0810471
-0.22397 0.441775 0.0851053
-0.225643 0.4408 0.0891062
-0.226128 0.439751 0.0930498
-0.228928 0.43863 0.0969362
-0.231712 0.437435 0.100765
-0.230736 0.436167 0.104537
-0.228082 0.434826 0.108252
-0.22307 0.433411 0.111909
-0.226862 0.431923 0.115509
-0.220587 0.430362 0.119052
-0.223751 0.428728 0.122537
-0.229138 0.42702 0.125965
-0.231481 0.42524 0.129336
-0.225001 0.423386 0.13265
-0.227196 0.421458 0.135906
-0.23288 0.419458 0.139106
-0.224438 0.417384 0.142247
-0.227025 0.415237 0.145332
-0.231766 0.413017 0.148359
-0.221123 0.410724 0.151329
-0.231844 0.408357 0.154242
-0.221713 0.405917 0.157098
-0.224529 0.403404 0.159896
-0.229702 0.400817 0.162637
-0.228063 0.398158 0.165321
-0.232789 0.395425 0.167947
-0.220897 0.392619 0.170516
-0.224658 0.389739 0.173028
-0.23169 0.386787 0.175483
-0.222083 0.383761 0.17788
-0.22282 0.380662 0.18022
-0.226 0.377489 0.182503
-0.231184 0.374244 0.184729
-0.231363 0.370925 0.186897
-0.22288 0.367539 0.189009
-0.227417 0.364147 0.191073
-0.231659 0.360762 0.19309
-0.227036 0.357385 0.195061
-0.22401 0.354016 0.196986
-0.228341 0.350655 0.198865
-0.230013 0.347302 0.200697
-0.226176 0.343957 0.202483
-0.22467 0.340619 0.204223
-0.223694 0.337289 0.205917
-0.224144 0.333967 0.207564
-0.227416 0.330653 0.209165
-0.232091 0.327346 0.21072
-0.228843 0.324047 0.212228
-0.222648 0.320757 0.213691
-0.233257 0.317474 0.215107
-0.226863 0.314198 0.216477
-0.224926 0.310931 0.2178
-0.228067 0.307671 0.219077
-0.232334 0.30442 0.220308
-0.221126 0.301176 0.221493
-0.221497 0.297939 0.222631
-0.226431 0.294711 0.223724
-0.229132 0.29149 0.22477
-0.227464 0.288278 0.225769
-0.228747 0.285073 0.226723
-0.222484 0.281876 0.22763
-0.229518 0.278686 0.228491
-0.227671 0.275505 0.229305
-0.230115 0.272331 0.230074
-0.22068 0.269165 0.230796
-0.229771 0.266007 0.231472
-0.223915 0.262857 0.232101
-0.226196 0.259715 0.232684
-0.231122 0.25658 0.233222
-0.223621 0.253453 0.233712
-0.222584 0.250334 0.234157
-0.228446 0.247223 0.234555
-0.227077 0.244119 0.234907
-0.221911 0.241024 0.235213
-0.233359 0.237936 0.235472
-0.220525 0.234856 0.235686
-0.226125 0.231784 0.235853
-0.233053 0.22872 0.235973
-0.226673 0.225663 0.236048
-0.231148 0.222614 0.236076
-0.222537 0.219574 0.236058
-0.225407 0.21654 0.235994
-0.224997 0.213515 0.235883
-0.231098 0.210498 0.235726
-0.222548 0.207488 0.235523
-0.232087 0.204486 0.235274
-0.232264 0.201492 0.234978
-0.223862 0.198506 0.234636
-0.229556 0.195528 0.234248
-0.221236 0.192557 0.233814
-0.229927 0.189594 0.233333
-0.22926 0.186639 0.232806
-0.231862 0.183696 0.232244
-0.223996 0.180783 0.231693
-0.222648 0.1779 0.231157
-0.224329 0.175049 0.230637
-0.225758 0.172229 0.230133
-0.223808 0.169441 0.229645
-0.23037 0.166683 0.229172
-0.231806 0.163957 0.228716
-0.233702 0.161262 0.228274
-0.232914 0.158599 0.227849
-0.223025 0.155966 0.227439
-0.22241 0.153365 0.227046
-0.230929 0.150795 0.226667
-0.232189 0.148257 0.226305
-0.226382 0.145749 0.225958
-0.233534 0.143273 0.225627
-0.232213 0.140828 0.225312
-0.227692 0.138414 0.225013
-0.223742 0.136032 0.224729
-0.224619 0.133681 0.224461
-0.226512 0.131361 0.224209
-0.232743 0.129072 0.223972
-0.227928 0.126815 0.223751
-0.231043 0.124588 0.223546
-0.224485 0.122393 0.223357
-0.22987 0.12023 0.223184
-0.227929 0.118097 0.223026
-0.230639 0.115996 0.222884
-0.226055 0.113926 0.222757
-0.226656 0.111887 0.222647
-0.225381 0.10988 0.222552
-0.231597 0.107903 0.222473
-0.227034 0.105958 0.222409
-0.220944 0.104045 0.222362
-0.224491 0.102162 0.22233
-0.221452 0.100311 0.222314
-0.231203 0.0984908 0.222313
-0.229265 0.096702 0.222328
-0.231356 0.0949445 0.222359
-0.220518 0.0932182 0.222406
-0.227653 0.0915231 0.222469
-0.22048 0.0898593 0.222547
-0.232429 0.0882267 0.222641
-0.225428 0.0866254 0.222751
-0.23247 0.0850553 0.222876
-0.227915 0.0835165 0.223017
-0.221363 0.0820089 0.223174
-0.23308 0.0805325 0.223347
-0.221852 0.0790874 0.223535
-0.229875 0.0776735 0.223739
-0.230707 0.0762909 0.223959
-0.223518 0.0749395 0.224195
-0.228273 0.0736194 0.224446
-0.231043 0.0723305 0.224713
-0.225389 0.0710729 0.224996
-0.225707 0.0698465 0.225295
-0.227731 0.0686513 0.225609
-0.227535 0.0674874 0.225939
-0.22579 0.0663256 0.226267
-0.225301 0.0651057 0.226557
-0.222381 0.0638259 0.226808
-0.222726 0.0624861 0.227019
-0.225433 0.0610865 0.227191
-0.224157 0.059627 0.227324
-0.226216 0.0581076 0.227418
-0.228745 0.0565283 0.227472
-0.231278 0.0548891 0.227487
-0.223932 0.05319 0.227462
-0.226357 0.0514309 0.227399
-0.221713 0.049612 0.227296
-0.2305 0.0477332 0.227153
-0.231216 0.0457945 0.226972
-0.225699 0.0437959 0.226751
-0.224455 0.0417374 0.22649
-0.225966 0.0396189 0.226191
-0.229062 0.0374406 0.225852
-0.227162 0.0352024 0.225474
-0.232656 0.0329043 0.225057
-0.223894 0.0305462 0.2246
-0.225602 0.0281283 0.224104
-0.225491 0.0256505 0.223568
-0.224553 0.0231128 0.222994
-0.223048 0.0205151 0.22238
-0.231744 0.0178576 0.221727
-0.22608 0.0151402 0.221034
-0.222209 0.0123629 0.220302
-0.221628 0.00952563 0.219531
-0.225567 0.00662851 0.218721
-0.224067 0.00367148 0.217871
-0.23315 0.000654545 0.216982
-0.224862 -0.00242229 0.216054
-0.220765 -0.00555902 0.215086
-0.229543 -0.00875565 0.214079
-0.22617 -0.0120122 0.213033
-0.229665 -0.0153286 0.211947
-0.231415 -0.018705 0.210822
-0.232283 -0.0221412 0.209658
-0.222192 -0.0256373 0.208455
-0.222428 -0.0291934 0.207212
-0.223847 -0.0328093 0.20593
-0.231668 -0.0364851 0.204609
-0.229385 -0.0402209 0.203248
-0.23267 -0.0440165 0.201848
-0.232707 -0.0478721 0.200409
-0.225218 -0.0517875 0.19893
-0.222842 -0.0557628 0.197412
-0.22649 -0.0597981 0.195855
-0.227775 -0.0638932 0.194259
-0.228296 -0.0680483 0.192623
-0.229759 -0.0722632 0.190948
-0.227545 -0.076538 0.189234
-0.227073 -0.0808728 0.18748
-0.231697 -0.0852674 0.185687
-0.229437 -0.089722 0.183855
-0.223931 -0.0942364 0.181983
-0.229558 -0.0988108 0.180073
-0.222754 -0.103345 0.178121
-0.220997 -0.107741 0.176129
-0.222135 -0.111997 0.174095
-0.224103 -0.116113 0.17202
-0.229742 -0.12009 0.169904
-0.221197 -0.123928 0.167746
-0.232035 -0.127627 0.165547
-0.232851 -0.131186 0.163307
-0.223307 -0.134606 0.161026
-0.226762 -0.137886 0.158703
-0.225634 -0.141027 0.156339
-0.221036 -0.144029 0.153934
-0.232764 -0.146891 0.151487
-0.222104 -0.149614 0.148999
-0.225047 -0.152198 0.14647
-0.229449 -0.154642 0.143899
-0.232332 -0.156947 0.141288
-0.227021 -0.159113 0.138634
-0.23071 -0.161139 0.13594
-0.229871 -0.163026 0.133204
-0.221516 -0.164773 0.130427
-0.22641 -0.166381 0.127609
-0.224928 -0.16785 0.12475
-0.232203 -0.16918 0.121849
-0.227188 -0.17037 0.118907
-0.228692 -0.17142 0.115923
-0.227131 -0.172332 0.112899
-0.223196 -0.173104 0.109833
-0.226966 -0.173736 0.106725
-0.228649 -0.17423 0.103577
-0.224592 -0.174584 0.100387
-0.226662 -0.174798 0.0971556
-0.225678 -0.174874 0.0938832
-0.228479 -0.174809 0.0905695
-0.233645 -0.174606 0.0872144
-0.22433 -0.174263 0.0838181
-0.232388 -0.173781 0.0803805
-0.225456 -0.173159 0.0769016
-0.222269 -0.172399 0.0733814
-0.227201 -0.171498 0.0698199
-0.223807 -0.170459 0.0662171
-0.22713 -0.16928 0.0625731
-0.228679 -0.167961 0.0588877
-0.223302 -0.166504 0.0551611
-0.226388 -0.164907 0.0513931
-0.228985 -0.16317 0.0475839
-0.221042 -0.161295 0.0437334
-0.225352 -0.15928 0.0398416
-0.23138 -0.157125 0.0359085
-0.228757 -0.154831 0.0319341
-0.231976 -0.152398 0.0279184
-0.22386 -0.149826 0.0238614
-0.221095 -0.147114 0.0197631
-0.225603 -0.144263 0.0156236
-0.233354 -0.141272 0.0114427
-0.229346 -0.138142 0.0072206
-0.232981 -0.134873 0.00295718
-0.225241 -0.131468 -0.00134531
-0.231976 -0.128043 -0.00561303
-0.222483 -0.124655 -0.00981021
-0.222254 -0.121304 -0.0139368
-0.225803 -0.11799 -0.0179929
-0.224148 -0.114713 -0.0219785
-0.222392 -0.111473 -0.0258935
-0.233528 -0.10827 -0.0297379
-0.232045 -0.105103 -0.0335118
-0.22433 -0.101974 -0.0372152
-0.225534 -0.0988813 -0.040848
-0.230836 -0.0958256 -0.0444103
-0.232848 -0.0928067 -0.047902
-0.231482 -0.0898248 -0.0513232
-0.225442 -0.0868797 -0.0546738
-0.229199 -0.0839715 -0.0579539
-0.229485 -0.0811002 -0.0611634
-0.228846 -0.0782658 -0.0643024
-0.224952 -0.0754683 -0.0673709
-0.223076 -0.0727077 -0.0703688
-0.223017 -0.0699839 -0.0732961
-0.226736 -0.0672971 -0.0761529
-0.225614 -0.0646471 -0.0789392
-0.223132 -0.062034 -0.0816549
-0.221773 -0.0594579 -0.0843001
-0.231802 -0.0569186 -0.0868747
-0.225361 -0.0544161 -0.0893788
-0.228383 -0.0519506 -0.0918123
-0.230357 -0.049522 -0.0941753
-0.231911 -0.0471303 -0.0964678
-0.222375 -0.0447754 -0.0986897
-0.232845 -0.0424574 -0.100841
-0.228046 -0.0401764 -0.102922
-0.226115 -0.0379322 -0.104932
-0.229712 -0.0357249 -0.106872
-0.226451 -0.0335545 -0.108741
-0.23073 -0.031421 -0.11054
-0.229592 -0.0293243 -0.112268
-0.232255 -0.0272646 -0.113925
-0.223001 -0.0252417 -0.115512
-0.231936 -0.0232558 -0.117029
-0.229951 -0.0213067 -0.118475
-0.223266 -0.0193945 -0.11985
-0.221844 -0.0175192 -0.121155
-0.223245 -0.0156808 -0.122389
-0.223854 -0.0138793 -0.123553
-0.22556 -0.0121147 -0.124646
-0.228931 -0.0103869 -0.125669
-0.222356 -0.00869606 -0.126621
-0.230691 -0.0070421 -0.127502
-0.222264 -0.00542502 -0.128313
-0.230679 -0.00384484 -0.129054
-0.230412 -0.00230154 -0.129723
-0.226526 -0.00079513 -0.130323
-0.220655 0.00067439 -0.130852
-0.233009 0.00210702 -0.13131
-0.232643 0.00350276 -0.131698
-0.226761 0.00486162 -0.132015
-0.22806 0.00619369 -0.132268
-0.232467 0.00759251 -0.132516
-0.230289 0.00908082 -0.132774
-0.221893 0.0106586 -0.133042
-0.230634 0.0123259 -0.13332
-0.231778 0.0140827 -0.133608
-0.232063 0.015929 -0.133905
-0.221361 0.0178648 -0.134212
-0.23266 0.0198901 -0.134529
-0.233098 0.0220048 -0.134856
-0.232944 0.0242091 -0.135193
-0.229259 0.0265028 -0.135539
-0.221586 0.0288861 -0.135895
-0.228434 0.0313588 -0.136261
-0.22798 0.0339211 -0.136637
-0.221168 0.0365728 -0.137023
-0.222614 0.039314 -0.137418
-0.226634 0.0421447 -0.137823
-0.222549 0.0450649 -0.138238
-0.224521 0.0480746 -0.138663
-0.228446 0.0511738 -0.139098
-0.230284 0.0543625 -0.139542
-0.233665 0.0576407 -0.139996
-0.226749 0.0610084 -0.14046
-0.221054 0.0644656 -0.140934
-0.228433 0.0680122 -0.141418
-0.230524 0.0716484 -0.141911
-0.225953 0.075374 -0.142414
-0.230338 0.0791892 -0.142927
-0.224647 0.0830938 -0.14345
-0.22118 0.0870879 -0.143983
-0.227944 0.0911715 -0.144525
-0.221911 0.0953447 -0.145077
-0.233628 0.0996073 -0.145639
-0.221237 0.103959 -0.146211
-0.225741 0.108401 -0.146793
-0.223291 0.112932 -0.147384
-0.226071 0.117553 -0.147986
-0.231833 0.122263 -0.148597
-0.230773 0.127062 -0.149217
-0.228641 0.131951 -0.149848
-0.233666 0.13693 -0.150488
-0.228178 0.141998 -0.151139
-0.232632 0.147156 -0.151799
-0.224966 0.152403 -0.152468
-0.222377 0.157739 -0.153148
-0.232862 0.163165 -0.153838
-0.222961 0.168681 -0.154537
-0.224938 0.174286 -0.155246
-0.224548 0.17998 -0.155965
-0.223072 0.185764 -0.156693
-0.226689 0.191638 -0.157432
-0.224625 0.197601 -0.15818
-0.231829 0.203653 -0.158938
-0.224574 0.209795 -0.159706
-0.224065 0.216027 -0.160483
-0.223403 0.222347 -0.161271
-0.222197 0.235224 -0.162854
-0.225171 0.241607 -0.163542
-0.224348 0.247893 -0.164122
-0.232589 0.254081 -0.164594
-0.226399 0.26017 -0.164959
-0.221145 0.266162 -0.165216
-0.232943 0.272056 -0.165365
-0.230074 0.277852 -0.165407
-0.231797 0.28355 -0.165341
-0.220696 0.289151 -0.165168
-0.225496 0.294653 -0.164887
-0.229845 0.300058 -0.164498
-0.221483 0.305365 -0.164002
-0.228846 0.310573 -0.163398
-0.224507 0.315684 -0.162686
-0.230822 0.320698 -0.161867
-0.231654 0.325613 -0.16094
-0.230531 0.33043 -0.159905
-0.226804 0.33515 -0.158763
-0.221751 0.339771 -0.157513
-0.232311 0.344295 -0.156156
-0.221746 0.348721 -0.154691
-0.227862 0.353049 -0.153118
-0.23266 0.357279 -0.151437
-0.223345 0.361412 -0.149649
-0.231444 0.365446 -0.147754
-0.220794 0.369382 -0.14575
-0.223428 0.373221 -0.143639
-0.222174 0.376962 -0.141421
-0.230928 0.380605 -0.139095
-0.227664 0.38415 -0.136661
-0.233673 0.387597 -0.134119
-0.223763 0.390946 -0.13147
-0.23221 0.394198 -0.128713
-0.228353 0.397351 -0.125849
-0.229595 0.400407 -0.122877
-0.220552 0.403365 -0.119797
-0.233211 0.406225 -0.11661
-0.230378 0.408987 -0.113315
-0.231211 0.411651 -0.109912
-0.230436 0.414217 -0.106402
-0.231686 0.416686 -0.102784
-0.225492 0.419056 -0.0990588
-0.221975 0.421329 -0.0952257
-0.221262 0.423504 -0.0912849
-0.231127 0.425581 -0.0872364
-0.223378 0.42756 -0.0830804
-0.225157 0.429441 -0.0788167
-0.225008 0.431225 -0.0744454
-0.22166 0.43291 -0.0699664
-0.22768 0.434498 -0.0653798
-0.221498 0.435987 -0.0606855
-0.22491 0.437379 -0.0558836
-0.231723 0.438673 -0.0509741
-0.225279 0.439869 -0.0459569
-0.226166 0.440968 -0.0408321
-0.228123 0.441968 -0.0355997
-0.22121 0.44287 -0.0302596
-0.22655 0.443675 -0.0248119
-0.226046 0.444382 -0.0192565
-0.226605 0.444991 -0.0135935
-0.230336 0.445502 -0.00782291
-0.228456 0.445915 -0.00194465
-0.229075 0.44623 0.00404126
-0.233237 0.446447 0.0101348
-0.223171 0.446567 0.016336
-0.231116 0.446589 0.0226448
-0.23279 0.446512 0.0290613
-0.228556 0.446338 0.0355854
-0.225884 0.446066 0.0422171
-0.232782 0.445696 0.0489565
-0.2311 0.445229 0.0558035
-0.231655 0.444663 0.0627581
-0.225173 0.444 0.0698204
-0.227695 0.443238 0.0769903
-0.225705 0.442379 0.0842679
-0.22447 0.441422 0.0916531
-0.227867 0.440367 0.0991459
-0.224641 0.439214 0.106746
-0.228461 0.437964 0.114455
-0.222634 0.436615 0.12227
-0.225865 0.435169 0.130194
-0.231075 0.433624 0.138225
-0.221125 0.431982 0.146363
-0.222099 0.430242 0.15461
-0.228525 0.428404 0.162964
