# .PCD v0.7 - Point Cloud Data file format
VERSION 0.7
FIELDS x y z
SIZE 4 4 4
TYPE F F F
COUNT 1 1 1
WIDTH 214
HEIGHT 1
VIEWPOINT 0 0 0 1 0 0 0
POINTS 214
DATA ascii
0.12907672 -0.055001575 0.099009156
0.12873042 -0.050662283 0.096361637
0.13078606 -0.088653207 0.087794423
0.13135225 -0.078110054 0.089614391
0.13485777 -0.075195089 0.092613697
0.16115212 -0.045196313 -0.069367766
0.16064227 -0.064614698 -0.072489142
0.17864656 -0.020147484 -0.062862277
0.17864448 -0.018266704 -0.065322876
0.1787675 0.058278594 -0.046065927
0.1781981 0.026314702 -0.070498466
0.15020633 -0.031435747 0.10590577
0.1502682 -0.0068899058 0.10794115
0.17806625 0.16774867 0.028003097
0.15041554 0.065669477 0.10437286
0.15056306 0.062379014 0.10954559
0.17909789 0.17173876 0.018139362
0.1482197 -0.084920675 0.088431358
0.14789891 -0.071227103 0.094750166
0.13829553 -0.073859647 0.093566775
0.17696583 0.028752673 -0.058046222
0.17240059 -0.010626387 -0.055131555
0.17480493 -0.030289244 -0.073693156
0.15934902 -0.11102895 -0.055564165
0.16572607 -0.10287765 -0.059605956
0.15413201 -0.14019506 -0.046419621
0.1670149 -0.14537486 -0.039083362
0.17855507 0.13340273 -0.056155801
0.178725 0.18057586 -0.0076308269
0.1782378 0.13853441 -0.038438439
0.15040964 0.0082983226 0.096331716
0.13648283 -0.042089436 0.10673225
0.147304 0.038750887 0.13139248
0.12561208 0.026580423 0.11636305
0.1471802 0.030293634 0.12795293
0.17827976 0.10590832 -0.034799814
0.14840317 0.07146585 0.1009289
0.15040135 0.082646072 0.10967278
0.14882636 0.03017034 0.1274004
0.1767112 -0.011084583 -0.072655559
0.17776102 -0.047262687 -0.065344453
0.17901689 0.1803153 0.02538228
0.17904401 0.17755382 0.018095255
0.15008235 0.11380664 0.11937869
0.14905787 0.1333387 0.10664916
0.13997149 0.15334918 0.11307919
0.13444602 0.095810458 0.11408782
0.12797618 0.048565466 0.1142534
0.13162243 0.081191435 0.1113286
0.14851087 -0.16775776 0.035351515
0.14956468 -0.15291467 0.043799996
0.14128661 -0.13725927 0.052562594
0.14824909 -0.1358825 0.052578449
0.14899898 -0.045572933 0.10738587
0.14967912 -0.057489451 0.10271907
0.13875967 -0.049600113 0.10427415
0.13296889 -0.088794634 0.087057352
0.139009 -0.089027464 0.085149407
0.16287607 -0.082689986 -0.065160751
0.16040939 -0.082664996 -0.063261867
0.17210364 -0.077692464 -0.066626072
0.16024137 -0.057589937 -0.065641642
0.13180697 0.059567634 0.10904896
0.16216052 -0.0093225278 -0.063316703
0.16301024 -0.0074884258 -0.066088676
0.16466224 0.03329999 -0.068713903
0.16779613 0.18006079 -0.029201629
0.17672414 0.14004369 -0.055463433
0.17663658 0.17008816 -0.022588732
0.17820543 0.17732702 -0.00040686131
0.17233372 0.18870868 -0.0060837287
0.17021626 0.18531863 0.0067087412
0.17753518 -0.0089104883 -0.061377764
0.17744553 0.013940591 -0.063661575
0.17705244 0.11816719 -0.058454394
0.17375958 0.11512335 -0.067001224
0.17662984 0.096505895 -0.068499684
0.14996326 -0.024735164 0.10488296
0.1463688 -0.0069816299 0.095808864
0.17721331 0.090414882 -0.038253903
0.15052551 0.086256728 0.11664927
0.14992046 0.03193035 0.11935365
0.17497164 -0.052549306 -0.071842909
0.17824894 -0.028246079 -0.064440012
0.15028858 0.1535473 0.075451255
0.13969243 0.11205612 0.1181618
0.13472438 0.10769103 0.11045134
0.14997864 0.11372013 0.10375035
0.13716888 0.084102228 0.10055399
0.16360581 0.079856068 -0.039455295
0.16291034 0.11403808 -0.035000086
0.14604419 -0.15591414 0.040781617
0.1483525 -0.028423373 0.11064291
0.14284873 -0.059667591 0.10145605
0.13122213 -0.036432285 0.10344386
0.13096124 -0.014593873 0.10139346
0.17777246 0.030467002 -0.060972214
0.17768461 0.0322873 -0.063437223
0.1495831 -0.048536185 0.10287166
0.13349496 -0.094881728 0.078570008
0.16591012 -0.043684896 -0.060256839
0.17732775 -0.052899484 -0.058359385
0.14619952 0.035564274 0.082710743
0.16153407 0.066774637 -0.044344187
0.14953482 0.026679572 0.09039557
0.16418236 -0.028486233 -0.067293048
0.16317189 -0.030273613 -0.064332008
0.16331989 -0.020993333 -0.061652422
0.13848734 -0.013995957 0.088882923
0.13680893 0.13183342 0.10600579
0.14928532 0.15527381 0.065939069
0.15641141 0.17118944 0.020384312
0.13593537 0.11207603 0.10379589
0.15859377 0.17846482 0.0056858063
0.170748 0.14321616 -0.055770278
0.17409587 0.15214132 -0.04554975
0.17794764 -0.0070306845 -0.064160109
0.17483383 0.011475112 -0.073350549
0.17759216 0.052216131 -0.051534534
0.17833215 0.09252888 -0.056983232
0.16083735 -0.001614783 -0.057267427
0.13057649 -0.034050833 0.096260071
0.13157785 0.0055554211 0.096888304
0.13653338 0.057798956 0.11715615
0.17629546 0.074823886 -0.04223299
0.177894 0.10917567 -0.039239287
0.13496649 0.083417445 0.11481464
0.14941889 0.053893376 0.11824071
0.14813995 0.14526677 0.073861718
0.14930069 0.1018429 0.10740638
0.15057766 0.1064489 0.1164062
0.13574737 0.085336655 0.10343909
0.14438629 -0.023001235 0.10897064
0.13632655 -0.063891828 0.097325563
0.16354352 0.064223453 -0.056891084
0.1617344 0.017472465 -0.055805802
0.16511983 0.10019834 -0.043135285
0.1658628 0.094196841 -0.049596667
0.13894087 -0.11384892 0.06218493
0.1416316 -0.14500257 0.042275906
0.14933425 -0.084934756 0.088267684
0.14837933 0.0380411 0.096125484
0.14944911 0.032782935 0.10671592
0.16293812 0.18334307 0.0021816492
0.17347795 0.12871866 -0.06044054
0.16667163 0.11666574 -0.063705087
0.17496485 0.1569006 -0.038000703
0.16306633 0.18291979 -0.020550849
0.17788965 0.16193677 -0.019633653
0.16969472 0.0315018 -0.070381284
0.16658413 0.013216764 -0.068867683
0.16503155 -0.0075173341 -0.067662597
0.16419786 0.039242446 -0.061784267
0.16220981 0.047801215 -0.045520782
0.14908892 0.042056873 0.12271583
0.14890397 0.06097972 0.11983871
0.14984965 0.064964339 0.11438549
0.15060961 0.12569299 0.10025179
0.1492371 0.14200269 0.096395969
0.15023226 0.14347802 0.082887053
0.14661443 0.1464061 0.076785326
0.14241189 0.1412787 0.096373796
0.1386764 0.11077924 0.10043192
0.14876521 -0.10808058 0.067337275
0.1404081 -0.11540094 0.059565544
0.14162159 -0.13647316 0.042774558
0.17385387 -0.099567041 -0.054816365
0.14172339 0.028697912 0.083995223
0.13336021 -0.012300249 0.092654467
0.1477077 0.042031839 0.093557
0.14919353 0.035468869 0.1113168
0.15847474 0.17676063 0.010152459
0.16075575 0.16510867 -0.011708619
0.16390067 0.14481343 -0.037235975
0.16581565 0.16292566 -0.040872097
0.16902423 0.13804595 -0.055957556
0.16429865 0.16306786 -0.027486088
0.16437519 0.15225519 -0.037973642
0.17093742 0.11675517 -0.067209363
0.17803001 0.059127335 -0.06132865
0.16623002 0.078840762 -0.054741621
0.16714549 0.080483109 -0.057784081
0.13854361 0.023968264 0.11954975
0.17813009 0.088318437 -0.057362199
0.17841101 0.10045624 -0.057678938
0.13774192 0.13062976 0.10328209
0.14348215 0.13163219 0.088189006
0.13026351 -0.040688653 0.097385287
0.14151913 -0.13185684 0.049085617
0.17601192 -0.070632145 -0.063023448
0.13378185 0.062742159 0.10309625
0.12741351 0.038536184 0.11106145
0.14817649 0.032715939 0.087179184
0.15982461 0.17887209 0.027358532
0.16007739 0.18256618 0.00058615208
0.16708386 0.13032268 -0.057986498
0.16424543 0.14629439 -0.039980054
0.16215998 0.0001363121 -0.060486674
0.14686656 0.087638557 0.12009013
0.14490861 0.13044648 0.085309625
0.13086331 0.044465385 0.10631192
0.13570857 0.007431753 0.087431431
0.1271075 0.032616809 0.11219549
0.16412699 0.054598 -0.056063294
0.17791617 0.10547189 -0.050748706
0.17034829 0.096494779 -0.063306808
0.13695639 0.096827149 0.11555123
0.16614568 0.13340782 -0.04613781
0.13479996 0.061472815 0.10038221
0.1368733 0.022390462 0.086447477
0.16865212 0.13028263 -0.059213281
0.17722559 0.076455891 -0.045307994
0.1776942 0.090021342 -0.059677482
0.12973039 0.012247302 0.10238254
