-0.0951307 0.260136 -0.285716
-0.0753827 0.262558 -0.283461
-0.0883862 0.264962 -0.281207
-0.0667734 0.267347 -0.278953
-0.0746304 0.269713 -0.276699
-0.0783225 0.272061 -0.274444
-0.0828731 0.274389 -0.27219
-0.0637104 0.276699 -0.269936
-0.0662783 0.27899 -0.267682
-0.0689555 0.281263 -0.265428
-0.0890603 0.283516 -0.263175
-0.0650104 0.285751 -0.260921
-0.0702234 0.287967 -0.258667
-0.0771404 0.290164 -0.256414
-0.084499 0.292342 -0.25416
-0.0946484 0.294502 -0.251907
-0.0919647 0.296642 -0.249653
-0.0823758 0.298764 -0.2474
-0.0900013 0.300867 -0.245147
-0.0893486 0.302952 -0.242893
-0.0604598 0.305017 -0.24064
-0.0795229 0.307064 -0.238387
-0.0909927 0.309092 -0.236134
-0.0950106 0.311101 -0.233881
-0.0948617 0.313091 -0.231628
-0.0819043 0.315063 -0.229376
-0.0765038 0.317016 -0.227123
-0.0751159 0.31895 -0.22487
-0.074042 0.320865 -0.222618
-0.0738523 0.322762 -0.220365
-0.0893368 0.324639 -0.218113
-0.0718899 0.326498 -0.21586
-0.0793439 0.328338 -0.213608
-0.0828088 0.330159 -0.211356
-0.0931715 0.331962 -0.209104
-0.0738341 0.333745 -0.206852
-0.0676662 0.33551 -0.2046
-0.0669888 0.337256 -0.202348
-0.0769175 0.338984 -0.200096
-0.0845708 0.340692 -0.197844
-0.0644124 0.342382 -0.195592
-0.0696553 0.344053 -0.193341
-0.0616055 0.345705 -0.191089
-0.0626654 0.347338 -0.188837
-0.0762337 0.348953 -0.186586
-0.090176 0.350549 -0.184335
-0.0789473 0.352125 -0.182083
-0.0869104 0.353684 -0.179832
-0.0648946 0.355223 -0.177581
-0.0878139 0.356744 -0.17533
-0.0677948 0.358245 -0.173079
-0.0655473 0.359728 -0.170828
-0.0601693 0.361193 -0.168577
-0.0600675 0.362638 -0.166326
-0.0737001 0.364065 -0.164075
-0.0813931 0.365472 -0.161824
-0.0858258 0.366861 -0.159574
-0.0847348 0.368232 -0.157323
-0.0656706 0.369583 -0.155073
-0.0943408 0.370916 -0.152822
-0.081975 0.37223 -0.150572
-0.0919219 0.373525 -0.148321
-0.0713926 0.374801 -0.146071
-0.0932005 0.376059 -0.143821
-0.0948659 0.377297 -0.141571
-0.0629087 0.378517 -0.139321
-0.085486 0.379718 -0.137071
-0.0855911 0.380901 -0.134821
-0.0745285 0.382064 -0.132571
-0.0709018 0.383209 -0.130322
-0.0657595 0.384335 -0.128072
-0.0696618 0.385442 -0.125822
-0.0781446 0.38653 -0.123573
-0.0879628 0.3876 -0.121323
-0.0690562 0.388651 -0.119074
-0.0787233 0.389683 -0.116825
-0.079092 0.390696 -0.114575
-0.0618423 0.39169 -0.112326
-0.0690316 0.392666 -0.110077
-0.0913721 0.393623 -0.107828
-0.0741374 0.394561 -0.105579
-0.081646 0.39548 -0.10333
-0.0693627 0.39638 -0.101081
-0.073789 0.397262 -0.0988324
-0.075073 0.398125 -0.0965837
-0.0824852 0.398969 -0.094335
-0.0898523 0.399794 -0.0920864
-0.0872694 0.400601 -0.0898379
-0.0802442 0.401388 -0.0875895
-0.0669792 0.402157 -0.0853411
-0.077015 0.402907 -0.0830928
-0.0604083 0.403639 -0.0808446
-0.0687819 0.404351 -0.0785965
-0.0830393 0.405045 -0.0763484
-0.0892404 0.40572 -0.0741003
-0.0720914 0.406376 -0.0718524
-0.0779002 0.407013 -0.0696045
-0.0929432 0.407632 -0.0673567
-0.0706006 0.408232 -0.065109
-0.0774469 0.408813 -0.0628613
-0.0899949 0.409375 -0.0606137
-0.0618273 0.409918 -0.0583661
-0.0902028 0.410443 -0.0561187
-0.0633888 0.410949 -0.0538713
-0.0708417 0.411436 -0.0516239
-0.0845322 0.411904 -0.0493767
-0.0801949 0.412353 -0.0471295
-0.0927032 0.412784 -0.0448823
-0.0612293 0.413196 -0.0426353
-0.0711826 0.413589 -0.0403883
-0.0897934 0.413963 -0.0381414
-0.0643673 0.414319 -0.0358945
-0.066319 0.414655 -0.0336478
-0.0747343 0.414973 -0.0314011
-0.0884548 0.415272 -0.0291544
-0.0889274 0.415553 -0.0269078
-0.0664765 0.415814 -0.0246613
-0.0784843 0.416057 -0.0224149
-0.0897119 0.416281 -0.0201685
-0.077478 0.416486 -0.0179222
-0.0694678 0.416672 -0.015676
-0.0809311 0.41684 -0.0134299
-0.0853564 0.416988 -0.0111838
-0.0752016 0.417118 -0.00893775
-0.0712158 0.41723 -0.0066918
-0.0686307 0.417322 -0.00444591
-0.0698225 0.417396 -0.0022001
-0.0784833 0.41745 4.56437e-05
-0.0908544 0.417486 0.00229132
-0.082258 0.417504 0.00453693
-0.0658624 0.417502 0.00678246
-0.0939421 0.417482 0.00902793
-0.0770182 0.417442 0.0112733
-0.0718921 0.417385 0.0135187
-0.0802066 0.417308 0.0157639
-0.0914985 0.417212 0.0180091
-0.0618359 0.417098 0.0202542
-0.0628176 0.416965 0.0224993
-0.0758757 0.416813 0.0247443
-0.0830242 0.416642 0.0269892
-0.0786087 0.416453 0.029234
-0.0820061 0.416244 0.0314788
-0.0654305 0.416017 0.0337235
-0.0840467 0.415771 0.0359682
-0.0791574 0.415507 0.0382127
-0.0856264 0.415223 0.0404572
-0.0606548 0.414921 0.0427017
-0.0847165 0.4146 0.044946
-0.0692159 0.41426 0.0471903
-0.075253 0.413902 0.0494346
-0.0882919 0.413524 0.0516787
-0.0684389 0.413128 0.0539228
-0.0656952 0.412713 0.0561668
-0.0812098 0.412279 0.0584108
-0.0775841 0.411826 0.0606547
-0.063914 0.411355 0.0628985
-0.09421 0.410865 0.0651422
-0.0602454 0.410356 0.0673859
-0.0750666 0.409828 0.0696295
-0.0934009 0.409282 0.071873
-0.0765156 0.408716 0.0741165
-0.0883594 0.408132 0.0763599
-0.0655688 0.407529 0.0786032
-0.0731642 0.406908 0.0808465
-0.0720807 0.406267 0.0830897
-0.0882265 0.405608 0.0853328
-0.0655999 0.40493 0.0875759
-0.0908437 0.404233 0.0898188
-0.0913142 0.403517 0.0920618
-0.0690777 0.402783 0.0943046
-0.0841453 0.402029 0.0965474
-0.0621263 0.401257 0.0987901
-0.0851281 0.400466 0.101033
-0.083364 0.399657 0.103275
-0.0902489 0.398828 0.105518
-0.0694303 0.397981 0.10776
-0.0658646 0.397115 0.110003
-0.0703112 0.39623 0.112245
-0.0740956 0.395327 0.114487
-0.068934 0.394404 0.116729
-0.0862995 0.393463 0.118971
-0.090101 0.392503 0.121213
-0.0951178 0.391524 0.123455
-0.0930322 0.390527 0.125697
-0.0668613 0.38951 0.127939
-0.0652322 0.388475 0.130181
-0.0877796 0.387421 0.132422
-0.0911148 0.386349 0.134664
-0.0757471 0.385257 0.136906
-0.0946741 0.384147 0.139147
-0.0911791 0.383018 0.141388
-0.0792131 0.38187 0.14363
-0.0687583 0.380704 0.145867
-0.0710786 0.379527 0.148081
-0.0760901 0.378337 0.150271
-0.0925799 0.377136 0.152437
-0.079838 0.375924 0.154579
-0.0880829 0.374699 0.156696
-0.0707249 0.373463 0.158789
-0.084978 0.372216 0.160858
-0.079839 0.370956 0.162902
-0.0870122 0.369685 0.164922
-0.0748812 0.368402 0.166918
-0.0764716 0.367108 0.168889
-0.0730967 0.365802 0.170837
-0.089549 0.364484 0.172759
-0.0774705 0.363155 0.174658
-0.0613547 0.361813 0.176532
-0.070741 0.360461 0.178382
-0.0626976 0.359096 0.180208
-0.0885041 0.35772 0.182009
-0.0833769 0.356332 0.183786
-0.0889113 0.354932 0.185539
-0.0602261 0.353521 0.187267
-0.0791102 0.352098 0.188971
-0.0601265 0.350664 0.190651
-0.0917504 0.349217 0.192306
-0.0732199 0.34776 0.193937
-0.0918597 0.34629 0.195544
-0.0798026 0.344809 0.197126
-0.0624618 0.343316 0.198685
-0.0934737 0.341811 0.200219
-0.0637575 0.340295 0.201728
-0.0849898 0.338767 0.203213
-0.0871923 0.337227 0.204674
-0.0681667 0.335676 0.206111
-0.0807511 0.334113 0.207523
-0.0880818 0.332538 0.208911
-0.0731181 0.330951 0.210275
-0.0739584 0.329353 0.211614
-0.0793149 0.327744 0.21293
-0.0787973 0.326122 0.21422
-0.0741802 0.324489 0.215487
-0.0728845 0.322844 0.216729
-0.0651561 0.321188 0.217947
-0.0660693 0.31952 0.21914
-0.0732339 0.31784 0.22031
-0.0698579 0.316148 0.221455
-0.0753066 0.314445 0.222575
-0.0820007 0.31273 0.223672
-0.0887034 0.311004 0.224744
-0.0692609 0.309266 0.225791
-0.0756796 0.307516 0.226815
-0.0633899 0.305754 0.227814
-0.0866457 0.303981 0.228789
-0.0885394 0.302196 0.229739
-0.073938 0.300399 0.230665
-0.0706445 0.298591 0.231567
-0.0746443 0.296771 0.232445
-0.0828378 0.294939 0.233298
-0.0778102 0.293096 0.234127
-0.0923516 0.291241 0.234931
-0.0691613 0.289374 0.235712
-0.0736808 0.287496 0.236468
-0.0733882 0.285606 0.237199
-0.0709039 0.283704 0.237907
-0.0669213 0.281791 0.23859
-0.0899381 0.279866 0.239248
-0.0749454 0.277929 0.239883
-0.0647017 0.275981 0.240493
-0.0631627 0.274021 0.241079
-0.0735876 0.272049 0.24164
-0.06962 0.270065 0.242178
-0.093657 0.26807 0.242691
-0.0717238 0.266063 0.243179
-0.060881 0.264045 0.243643
-0.0841121 0.262015 0.244083
-0.0751855 0.259973 0.244499
-0.0844347 0.257919 0.24489
-0.0890667 0.255854 0.245257
-0.0913624 0.253777 0.2456
-0.0646556 0.251689 0.245919
-0.0652815 0.249588 0.246213
-0.0690359 0.247476 0.246483
-0.0897355 0.245353 0.246728
-0.0836941 0.243218 0.246949
-0.0923881 0.241071 0.247146
-0.0924845 0.238912 0.247319
-0.0726648 0.236742 0.247467
-0.0663779 0.23456 0.247591
-0.0760322 0.232366 0.247691
-0.0794328 0.230161 0.247766
-0.0808122 0.227944 0.247817
-0.0846833 0.225715 0.247844
-0.0788252 0.223474 0.247846
-0.0775734 0.221222 0.247824
-0.0898137 0.218959 0.247778
-0.0838302 0.216683 0.247708
-0.0692577 0.214405 0.247622
-0.0841517 0.212139 0.247537
-0.0661432 0.209884 0.24745
-0.061494 0.20764 0.247364
-0.0645045 0.205407 0.247276
-0.0697132 0.203186 0.247189
-0.0846372 0.200976 0.2471
-0.0620234 0.198777 0.247011
-0.0907065 0.196589 0.246922
-0.0928661 0.194413 0.246832
-0.0676083 0.192249 0.246742
-0.0767524 0.190095 0.246651
-0.0737655 0.187953 0.24656
-0.061598 0.185822 0.246468
-0.0926367 0.183703 0.246376
-0.0644241 0.181594 0.246283
-0.0722125 0.179498 0.24619
-0.0838624 0.177412 0.246096
-0.0914942 0.175338 0.246002
-0.0774383 0.173275 0.245907
-0.0871998 0.171223 0.245812
-0.0849802 0.169183 0.245716
-0.0628669 0.167154 0.24562
-0.0758189 0.165136 0.245523
-0.0718985 0.16313 0.245426
-0.0911524 0.161135 0.245328
-0.0778777 0.159151 0.24523
-0.0818603 0.157178 0.245131
-0.0777277 0.155217 0.245032
-0.0673136 0.153267 0.244932
-0.0772904 0.151329 0.244832
-0.0817467 0.149402 0.244732
-0.0710079 0.147486 0.24463
-0.0764866 0.145581 0.244529
-0.0738834 0.143688 0.244426
-0.0812966 0.141806 0.244324
-0.0949678 0.139935 0.24422
-0.0703155 0.138076 0.244117
-0.0916411 0.136228 0.244013
-0.0732939 0.134391 0.243908
-0.0648593 0.132566 0.243803
-0.0779142 0.130752 0.243697
-0.0689298 0.128949 0.243591
-0.0777245 0.127158 0.243484
-0.081826 0.125377 0.243377
-0.0675944 0.123609 0.243269
-0.075761 0.121851 0.243161
-0.0826341 0.120105 0.243052
-0.0616119 0.11837 0.242943
-0.0730206 0.116646 0.242833
-0.0889735 0.114934 0.242723
-0.0820318 0.113233 0.242613
-0.0905522 0.111544 0.242501
-0.0690723 0.109865 0.24239
-0.0617523 0.108198 0.242278
-0.0736829 0.106543 0.242165
-0.0941972 0.104898 0.242052
-0.0835912 0.103265 0.241938
-0.0932112 0.101643 0.241824
-0.0727269 0.100033 0.241709
-0.0905522 0.0984338 0.241594
-0.0654273 0.096846 0.241478
-0.0648218 0.0952695 0.241362
-0.0742135 0.0937043 0.241246
-0.0698322 0.0921504 0.241128
-0.0651851 0.0906078 0.241011
-0.0946591 0.0890766 0.240893
-0.0907333 0.0875567 0.240774
-0.0703145 0.086048 0.240655
-0.0735018 0.0845507 0.240535
-0.0875341 0.0830647 0.240415
-0.0928586 0.08159 0.240295
-0.0892425 0.0801267 0.240173
-0.0732575 0.0786746 0.240052
-0.0832 0.0772338 0.23993
-0.0839577 0.0758044 0.239807
-0.0822665 0.0743863 0.239684
-0.0719617 0.0729795 0.23956
-0.0669963 0.071584 0.239436
-0.0668388 0.0701998 0.239312
-0.0766838 0.0688269 0.239186
-0.073714 0.0674654 0.239061
-0.0671442 0.0661151 0.238935
-0.0635475 0.0647762 0.238808
-0.0900892 0.0634485 0.238681
-0.0730442 0.0621322 0.238553
-0.0810426 0.0608272 0.238425
-0.0862652 0.0595336 0.238297
-0.0903796 0.0582512 0.238168
-0.0651422 0.0569801 0.238038
-0.0928511 0.0557204 0.237908
-0.0801509 0.054472 0.237777
-0.0750398 0.0532348 0.237646
-0.084559 0.052009 0.237515
-0.0759282 0.0507946 0.237383
-0.0872533 0.0495908 0.23725
-0.0842407 0.0483805 0.237105
-0.0912895 0.047155 0.236942
-0.0667981 0.0459145 0.236761
-0.0904439 0.0446588 0.236563
-0.0851924 0.0433881 0.236347
-0.0674979 0.0421023 0.236113
-0.0637361 0.0408013 0.235861
-0.0674443 0.0394853 0.235592
-0.0690541 0.0381541 0.235305
-0.0735693 0.0368079 0.235
-0.0824927 0.0354466 0.234677
-0.0650908 0.0340701 0.234337
-0.0871505 0.0326786 0.233979
-0.0648475 0.031272 0.233603
-0.0871172 0.0298503 0.23321
-0.086411 0.0284134 0.232799
-0.0761265 0.0269615 0.23237
-0.0605895 0.0254945 0.231923
-0.0932851 0.0240124 0.231458
-0.0923152 0.0225152 0.230976
-0.0767492 0.0210029 0.230476
-0.0801863 0.0194754 0.229959
-0.0918501 0.0179329 0.229423
-0.0860862 0.0163753 0.22887
-0.0638658 0.0148026 0.228299
-0.0870004 0.0132148 0.22771
-0.0900281 0.0116119 0.227104
-0.0907815 0.00999392 0.22648
-0.0624575 0.00836082 0.225838
-0.0923613 0.00671263 0.225178
-0.0935209 0.00504933 0.224501
-0.0931126 0.00337094 0.223806
-0.0833608 0.00167745 0.223093
-0.0630523 -3.11335e-05 0.222363
-0.0811766 -0.00175482 0.221614
-0.0799762 -0.0034936 0.220848
-0.0619474 -0.00524748 0.220064
-0.0657745 -0.00701646 0.219263
-0.0764137 -0.00880054 0.218444
-0.065602 -0.0105997 0.217607
-0.0708192 -0.012414 0.216752
-0.0812087 -0.0142434 0.215879
-0.0860734 -0.0160878 0.214989
-0.0950224 -0.0179474 0.214081
-0.076717 -0.0198221 0.213156
-0.061644 -0.0217118 0.212212
-0.0811734 -0.0236167 0.211251
-0.0867078 -0.0255366 0.210272
-0.0746111 -0.0274717 0.209275
-0.0862148 -0.0294218 0.208261
-0.0711536 -0.0313871 0.207229
-0.0619784 -0.0333674 0.206179
-0.0798808 -0.0353629 0.205111
-0.0639119 -0.0373734 0.204026
-0.0949227 -0.0393991 0.202923
-0.0621295 -0.0414398 0.201802
-0.0740495 -0.0434957 0.200663
-0.0675665 -0.0455666 0.199507
-0.0749229 -0.0476526 0.198333
-0.0901728 -0.0497538 0.197141
-0.087367 -0.05187 0.195932
-0.0817242 -0.0540013 0.194704
-0.0950246 -0.0561478 0.193459
-0.0804982 -0.0583093 0.192197
-0.0922863 -0.0604859 0.190916
-0.0719992 -0.0626776 0.189618
-0.0651454 -0.0648845 0.188302
-0.0928971 -0.0671064 0.186968
-0.066692 -0.0693434 0.185617
-0.0719242 -0.0715955 0.184247
-0.0708911 -0.0738627 0.18286
-0.0669856 -0.076145 0.181456
-0.0765574 -0.0784424 0.180033
-0.0710968 -0.0807549 0.178593
-0.090161 -0.0830825 0.177135
-0.0709607 -0.0854252 0.17566
-0.0696125 -0.087783 0.174166
-0.0678623 -0.0901559 0.172655
-0.0940836 -0.0925439 0.171126
-0.0646685 -0.094947 0.16958
-0.0725405 -0.0973652 0.168015
-0.0703616 -0.0997985 0.166433
-0.0921737 -0.102247 0.164833
-0.07579 -0.10471 0.163216
-0.0618863 -0.107189 0.161581
-0.0931104 -0.109683 0.159927
-0.0855182 -0.112191 0.158257
-0.0900763 -0.114715 0.156568
-0.0606966 -0.117254 0.154862
-0.0734021 -0.119808 0.153138
-0.0849116 -0.122378 0.151396
-0.062779 -0.124962 0.149637
-0.0822676 -0.127561 0.147859
-0.0707839 -0.130176 0.146065
-0.0874966 -0.132805 0.144252
-0.0896991 -0.135441 0.142423
-0.0867271 -0.138034 0.140588
-0.0768628 -0.140573 0.13875
-0.0634885 -0.143061 0.136907
-0.0914374 -0.145496 0.13506
-0.0634757 -0.147878 0.133208
-0.0796622 -0.150209 0.131353
-0.0923613 -0.152486 0.129493
-0.067709 -0.154712 0.127629
-0.0891418 -0.156885 0.125761
-0.060956 -0.159005 0.123889
-0.0679277 -0.161073 0.122013
-0.0646085 -0.163089 0.120132
-0.0877774 -0.165052 0.118247
-0.0791392 -0.166963 0.116358
-0.0950428 -0.168821 0.114465
-0.068814 -0.170627 0.112568
-0.0911695 -0.172381 0.110667
-0.0809622 -0.174082 0.108761
-0.0842482 -0.17573 0.106851
-0.0603162 -0.177327 0.104937
-0.0938199 -0.17887 0.103019
-0.086322 -0.180362 0.101097
-0.0885276 -0.181801 0.0991702
-0.0864763 -0.183187 0.0972396
-0.0897837 -0.184522 0.0953047
-0.0733903 -0.185803 0.0933657
-0.0640823 -0.187033 0.0914225
-0.062196 -0.18821 0.0894751
-0.0883037 -0.189334 0.0875236
-0.0677948 -0.190406 0.0855679
-0.072504 -0.191426 0.0836079
-0.0721107 -0.192393 0.0816439
-0.0632474 -0.193308 0.0796756
-0.0791799 -0.19417 0.0777032
-0.0628208 -0.19498 0.0757266
-0.0718503 -0.195738 0.0737458
-0.0898802 -0.196443 0.0717608
-0.0728277 -0.197096 0.0697717
-0.0751737 -0.197696 0.0677784
-0.0803535 -0.198244 0.0657809
-0.0620577 -0.19874 0.0637792
-0.0761908 -0.199183 0.0617734
-0.0748565 -0.199573 0.0597634
-0.0763355 -0.199911 0.0577492
-0.0862095 -0.200197 0.0557308
-0.0812344 -0.200431 0.0537083
-0.0828742 -0.200612 0.0516816
-0.0938885 -0.20074 0.0496507
-0.0672471 -0.200816 0.0476156
-0.0882737 -0.20084 0.0455764
-0.0927064 -0.200811 0.0435329
-0.0814992 -0.20073 0.0414853
-0.0744289 -0.200596 0.0394336
-0.0926839 -0.200411 0.0373776
-0.0882329 -0.200172 0.0353175
-0.0897001 -0.199881 0.0332532
-0.0725469 -0.199538 0.0311847
-0.0792196 -0.199142 0.029112
-0.073953 -0.198694 0.0270352
-0.0706853 -0.198194 0.0249542
-0.0796772 -0.197641 0.022869
-0.0711375 -0.197036 0.0207796
-0.0812494 -0.196378 0.0186861
-0.065826 -0.195668 0.0165884
-0.0743774 -0.194905 0.0144865
-0.0881654 -0.19409 0.0123804
-0.0618316 -0.193223 0.0102702
-0.0644113 -0.192303 0.00815579
-0.0814188 -0.191331 0.00603719
-0.0604973 -0.190306 0.00391442
-0.088667 -0.189229 0.00178748
-0.0637189 -0.188099 -0.000343643
-0.0750012 -0.186917 -0.00247894
-0.0796504 -0.185683 -0.00461841
-0.0731439 -0.184396 -0.00676206
-0.070293 -0.183057 -0.00890989
-0.0934319 -0.181665 -0.0110619
-0.0851463 -0.180221 -0.0132181
-0.0860369 -0.178725 -0.0153784
-0.0808593 -0.177176 -0.017543
-0.0637329 -0.175575 -0.0197117
-0.0702341 -0.173921 -0.0218845
-0.0695932 -0.172215 -0.0240616
-0.0637072 -0.170456 -0.0262428
-0.0813534 -0.168645 -0.0284282
-0.0812184 -0.166782 -0.0306178
-0.0634328 -0.164866 -0.0328116
-0.0843371 -0.162898 -0.0350095
-0.0815452 -0.160877 -0.0372116
-0.0751373 -0.158804 -0.0394179
-0.0827585 -0.156679 -0.0416284
-0.0694088 -0.154501 -0.043843
-0.0689994 -0.15227 -0.0460619
-0.0693145 -0.149988 -0.0482849
-0.0692073 -0.147652 -0.050512
-0.0902821 -0.145285 -0.0527352
-0.088145 -0.142928 -0.0549374
-0.0856018 -0.140583 -0.0571181
-0.071279 -0.138249 -0.0592775
-0.0631777 -0.135926 -0.0614153
-0.0822569 -0.133615 -0.0635317
-0.0769957 -0.131315 -0.0656267
-0.0913335 -0.129027 -0.0677002
-0.0633074 -0.12675 -0.0697523
-0.0880432 -0.124485 -0.0717829
-0.076985 -0.122231 -0.0737921
-0.0721782 -0.119989 -0.0757798
-0.0797747 -0.117758 -0.077746
-0.0710261 -0.115538 -0.0796909
-0.091999 -0.11333 -0.0816142
-0.0923806 -0.111134 -0.0835162
-0.0925135 -0.108948 -0.0853966
-0.0941982 -0.106775 -0.0872556
-0.0827049 -0.104613 -0.0890932
-0.0843854 -0.102462 -0.0909093
-0.0706874 -0.100322 -0.092704
-0.0901642 -0.0981946 -0.0944772
-0.0813084 -0.0960782 -0.096229
-0.0927921 -0.0939733 -0.0979593
-0.0714441 -0.0918798 -0.0996682
-0.0697164 -0.0897977 -0.101356
-0.0881965 -0.0877272 -0.103022
-0.0708021 -0.085668 -0.104666
-0.0735522 -0.0836204 -0.106289
-0.0721761 -0.0815842 -0.107891
-0.0760708 -0.0795594 -0.109471
-0.0917225 -0.0775461 -0.11103
-0.0760226 -0.0755443 -0.112567
-0.0934319 -0.0735539 -0.114083
-0.0609496 -0.071575 -0.115577
-0.0788787 -0.0696075 -0.11705
-0.0611114 -0.0676515 -0.118502
-0.0696135 -0.0657069 -0.119932
-0.0765284 -0.0637738 -0.12134
-0.0712972 -0.0618522 -0.122727
-0.070845 -0.059942 -0.124093
-0.0821068 -0.0580432 -0.125437
-0.081527 -0.0561559 -0.12676
-0.0934202 -0.0542801 -0.128061
-0.066737 -0.0524157 -0.129341
-0.08922 -0.0505628 -0.1306
-0.0930386 -0.0487214 -0.131837
-0.0842685 -0.0468914 -0.133052
-0.0676254 -0.0450728 -0.134246
-0.0877131 -0.0432657 -0.135419
-0.0838699 -0.0414701 -0.13657
-0.0781543 -0.0396859 -0.1377
-0.0948531 -0.0379132 -0.138808
-0.0797276 -0.0361519 -0.139895
-0.0773397 -0.0344021 -0.140961
-0.0738951 -0.0326637 -0.142004
-0.0685364 -0.0309368 -0.143027
-0.0810898 -0.0292214 -0.144028
-0.0828903 -0.0275174 -0.145008
-0.0655827 -0.0258249 -0.145966
-0.0620824 -0.0241438 -0.146902
-0.0732853 -0.0224742 -0.147818
-0.0601522 -0.020816 -0.148712
-0.0932969 -0.0191693 -0.149584
-0.0754084 -0.017534 -0.150435
-0.0648486 -0.0159102 -0.151264
-0.0815924 -0.0142979 -0.152072
-0.0844143 -0.012697 -0.152859
-0.0851935 -0.0111075 -0.153624
-0.0942368 -0.00952957 -0.154368
-0.0736626 -0.00796304 -0.15509
-0.081437 -0.00640798 -0.15579
-0.0945208 -0.00486437 -0.15647
-0.0940846 -0.00333221 -0.157128
-0.0791713 -0.00181151 -0.157764
-0.0650458 -0.000302269 -0.158379
-0.0622774 0.00119552 -0.158973
-0.0810608 0.00268185 -0.159545
-0.0696339 0.00415673 -0.160095
-0.0736969 0.00562015 -0.160624
-0.0667863 0.00707211 -0.161132
-0.0644317 0.00851262 -0.161618
-0.074715 0.00994167 -0.162083
-0.0742788 0.0113593 -0.162527
-0.0923999 0.0127654 -0.162948
-0.06732 0.0141601 -0.163349
-0.0789431 0.0155433 -0.163728
-0.0744332 0.0169151 -0.164085
-0.074475 0.0182754 -0.164422
-0.0751855 0.0196243 -0.164736
-0.0665162 0.0209617 -0.165029
-0.0715491 0.0222876 -0.165301
-0.0831089 0.0236021 -0.165552
-0.0948156 0.0249052 -0.16578
-0.0857872 0.0261968 -0.165988
-0.0831797 0.027477 -0.166174
-0.087024 0.0287635 -0.16635
-0.0680981 0.030068 -0.166525
-0.0821197 0.0313907 -0.166699
-0.0646267 0.0327315 -0.166871
-0.0910709 0.0340905 -0.167041
-0.0696939 0.0354676 -0.16721
-0.0730881 0.0368628 -0.167378
-0.0637811 0.0382761 -0.167544
-0.0887474 0.0397076 -0.167708
-0.0763666 0.0411572 -0.167871
-0.0634982 0.0426249 -0.168033
-0.0677798 0.0441108 -0.168192
-0.0612786 0.0456148 -0.168351
-0.0882436 0.0471369 -0.168508
-0.0635142 0.0486772 -0.168663
-0.067171 0.0502356 -0.168817
-0.0616934 0.0518121 -0.16897
-0.0653662 0.0534067 -0.169121
-0.0639076 0.0550195 -0.16927
-0.0730956 0.0566504 -0.169418
-0.0886616 0.0582995 -0.169564
-0.0735093 0.0599666 -0.169709
-0.0858687 0.0616519 -0.169852
-0.0863724 0.0633554 -0.169994
-0.0694613 0.065077 -0.170135
-0.0674979 0.0668167 -0.170274
-0.0891718 0.0685745 -0.170411
-0.0701044 0.0703504 -0.170547
-0.078285 0.0721445 -0.170681
-0.0923131 0.0739568 -0.170814
-0.0668506 0.0757871 -0.170945
-0.0651369 0.0776356 -0.171075
-0.0907976 0.0795022 -0.171204
-0.0843768 0.081387 -0.17133
-0.0750408 0.0832898 -0.171456
-0.0785647 0.0852109 -0.17158
-0.0684132 0.08715 -0.171702
-0.0884366 0.0891073 -0.171823
-0.0696167 0.0910827 -0.171942
-0.0602315 0.0930762 -0.17206
-0.0946355 0.0950879 -0.172176
-0.0724311 0.0971177 -0.172291
-0.0708857 0.0991656 -0.172404
-0.0890592 0.101232 -0.172516
-0.0926421 0.103316 -0.172626
-0.0855182 0.105418 -0.172735
-0.071413 0.107539 -0.172842
-0.0657135 0.109677 -0.172948
-0.075626 0.111834 -0.173052
-0.0821379 0.114009 -0.173155
-0.0678001 0.116202 -0.173256
-0.087009 0.118413 -0.173356
-0.0727612 0.120642 -0.173454
-0.087039 0.122889 -0.173551
-0.0879896 0.125155 -0.173646
-0.0610739 0.127439 -0.17374
-0.0852803 0.12974 -0.173832
-0.0943708 0.13206 -0.173923
-0.0681613 0.134398 -0.174012
-0.0898427 0.136754 -0.1741
-0.0935252 0.139129 -0.174186
-0.0948499 0.141521 -0.174271
-0.0829332 0.143932 -0.174354
-0.072563 0.14636 -0.174436
-0.0831207 0.148807 -0.174516
-0.080616 0.151272 -0.174594
-0.0805475 0.153755 -0.174672
-0.0919905 0.156256 -0.174747
-0.076029 0.158776 -0.174821
-0.0706178 0.161313 -0.174894
-0.083305 0.163869 -0.174965
-0.0720839 0.166442 -0.175035
-0.0644027 0.169034 -0.175103
-0.0763698 0.171644 -0.17517
-0.0751566 0.174272 -0.175235
-0.0932787 0.176919 -0.175299
-0.0788177 0.179583 -0.175361
-0.0860444 0.182266 -0.175421
-0.0801863 0.184966 -0.17548
-0.0648561 0.187685 -0.175538
-0.0780867 0.190422 -0.175594
-0.0921041 0.193177 -0.175649
-0.0753045 0.19595 -0.175702
-0.0702619 0.198741 -0.175753
-0.0678366 0.201551 -0.175803
-0.064825 0.204378 -0.175852
-0.0653051 0.207224 -0.175899
-0.0848848 0.210088 -0.175945
-0.0648196 0.21297 -0.175989
-0.0725265 0.21587 -0.176031
-0.0689469 0.218788 -0.176072
-0.0660746 0.221725 -0.176112
-0.0682878 0.224679 -0.17615
-0.0645549 0.227652 -0.176187
-0.0632763 0.230642 -0.176222
-0.0631284 0.233648 -0.176253
-0.0768446 0.236636 -0.176265
-0.0797169 0.2396 -0.176253
-0.0913946 0.242538 -0.176218
-0.0827424 0.245452 -0.176158
-0.0662708 0.248341 -0.176075
-0.0801541 0.251205 -0.175967
-0.0892104 0.254044 -0.175836
-0.0951446 0.256859 -0.175681
-0.072086 0.259649 -0.175503
-0.0680091 0.262413 -0.1753
-0.0929368 0.265153 -0.175074
-0.0920205 0.267868 -0.174823
-0.081631 0.270559 -0.174549
-0.0711579 0.273224 -0.174251
-0.0668131 0.275865 -0.173929
-0.0897634 0.27848 -0.173584
-0.0901578 0.281071 -0.173214
-0.0934727 0.283637 -0.172821
-0.0830189 0.286179 -0.172404
-0.094523 0.288695 -0.171963
-0.0608145 0.291186 -0.171498
-0.0724311 0.293653 -0.171009
-0.0932905 0.296095 -0.170497
-0.0630716 0.298512 -0.169961
-0.072788 0.300904 -0.1694
-0.0800137 0.303272 -0.168816
-0.0944351 0.305614 -0.168209
-0.0866553 0.307932 -0.167577
-0.0814102 0.310225 -0.166921
-0.0722072 0.312493 -0.166242
-0.0677165 0.314736 -0.165539
-0.0943729 0.316954 -0.164812
-0.0661657 0.319148 -0.164061
-0.0903132 0.321316 -0.163286
-0.0729006 0.32346 -0.162488
-0.0758457 0.325579 -0.161665
-0.0606366 0.327673 -0.160819
-0.0789002 0.329742 -0.159949
-0.0876317 0.331787 -0.159055
-0.0846147 0.333807 -0.158137
-0.0677069 0.335801 -0.157196
-0.0831454 0.337771 -0.15623
-0.0782968 0.339716 -0.155241
-0.0738223 0.341637 -0.154228
-0.0915746 0.343532 -0.153191
-0.0606034 0.345403 -0.15213
-0.0686318 0.347248 -0.151046
-0.0898759 0.349069 -0.149937
-0.0791467 0.350865 -0.148805
-0.0701837 0.352636 -0.147649
-0.0601007 0.354383 -0.146469
-0.0679405 0.356104 -0.145265
-0.0726412 0.357801 -0.144038
-0.0733593 0.359473 -0.142786
-0.0619495 0.36112 -0.141511
-0.0710079 0.362742 -0.140212
-0.0849973 0.364339 -0.138889
-0.0752573 0.365912 -0.137542
-0.084977 0.36746 -0.136171
-0.0759218 0.368982 -0.134777
-0.070158 0.37048 -0.133358
-0.0865203 0.371954 -0.131916
-0.0759765 0.373402 -0.13045
-0.0778745 0.374825 -0.12896
-0.0617405 0.376224 -0.127447
-0.071652 0.377598 -0.125909
-0.0683039 0.378947 -0.124348
-0.0732832 0.380271 -0.122763
-0.0795207 0.38157 -0.121154
-0.0671239 0.382845 -0.119521
-0.068993 0.384094 -0.117864
-0.0604458 0.385319 -0.116184
-0.0879886 0.386519 -0.114479
-0.0730688 0.387694 -0.112751
-0.0632238 0.388844 -0.110999
-0.0744096 0.38997 -0.109223
-0.0629226 0.39107 -0.107423
-0.0774212 0.392146 -0.1056
-0.0779881 0.393197 -0.103752
-0.0793814 0.394223 -0.101881
-0.0639429 0.395224 -0.0999861
-0.0621499 0.3962 -0.0980672
-0.0887506 0.397152 -0.0961245
-0.0863263 0.398079 -0.0941579
-0.0880454 0.398981 -0.0921675
-0.0695214 0.399858 -0.0901532
-0.0621242 0.40071 -0.0881151
-0.0732232 0.401537 -0.0860532
-0.0937224 0.40234 -0.0839674
-0.0726519 0.403117 -0.0818578
-0.0939625 0.40387 -0.0797243
-0.0756367 0.404598 -0.077567
-0.0760536 0.405301 -0.0753859
-0.0795004 0.405979 -0.073181
-0.0930193 0.406633 -0.0709522
-0.0601961 0.407262 -0.0686995
-0.0906883 0.407865 -0.066423
-0.074072 0.408444 -0.0641227
-0.0934062 0.408998 -0.0617986
-0.0891064 0.409528 -0.0594506
-0.0719885 0.410032 -0.0570788
-0.0835001 0.410512 -0.0546831
-0.0840788 0.410966 -0.0522636
-0.0722222 0.411396 -0.0498203
-0.0807575 0.411801 -0.0473531
-0.0801616 0.412182 -0.0448621
-0.0873916 0.412537 -0.0423472
-0.0713465 0.412868 -0.0398085
-0.0893293 0.413173 -0.037246
-0.077702 0.413454 -0.0346597
-0.0773472 0.41371 -0.0320495
-0.0669845 0.413941 -0.0294154
-0.0798958 0.414148 -0.0267575
-0.095016 0.414329 -0.0240758
-0.0832525 0.414486 -0.0213703
-0.0819739 0.414618 -0.0186409
-0.0906594 0.414725 -0.0158877
-0.0661207 0.414807 -0.0131106
-0.0694228 0.414864 -0.0103097
-0.0638797 0.414897 -0.00748497
-0.0725823 0.414905 -0.00463639
-0.0723272 0.414887 -0.00176398
-0.0771072 0.414845 0.00113227
-0.0693992 0.414778 0.00405236
-0.0692867 0.414687 0.00699629
-0.0615637 0.41457 0.00996405
-0.0788155 0.414429 0.0129557
-0.0824176 0.414263 0.0159711
-0.0912349 0.414072 0.0190104
-0.0634049 0.413856 0.0220735
-0.0663351 0.413615 0.0251604
-0.0792035 0.413349 0.0282712
-0.0913581 0.413059 0.0314059
-0.0646417 0.412744 0.0345643
-0.0684368 0.412404 0.0377466
-0.0938006 0.412039 0.0409528
-0.0805421 0.411649 0.0441827
-0.0623 0.411234 0.0474365
-0.0927953 0.410795 0.0507142
-0.089385 0.41033 0.0540157
-0.0877549 0.409841 0.057341
-0.0910688 0.409327 0.0606902
-0.074416 0.408789 0.0640632
-0.0910184 0.408225 0.06746
-0.0734622 0.407636 0.0708807
-0.0748029 0.407023 0.0743252
-0.0709329 0.406385 0.0777936
-0.0694838 0.405722 0.0812858
-0.0630191 0.405034 0.0848018
-0.0716552 0.404321 0.0883417
-0.0846919 0.403584 0.0919054
-0.0667691 0.402822 0.0954929
-0.0818936 0.402034 0.0991043
-0.0601447 0.401222 0.102739
-0.0680456 0.400385 0.106399
-0.0879961 0.399524 0.110081
-0.0891846 0.398637 0.113788
-0.0815399 0.397726 0.117519
-0.0888106 0.39679 0.121273
-0.0747718 0.395828 0.125051
-0.0883047 0.394843 0.128853
-0.0614565 0.393832 0.132679
-0.0884934 0.392796 0.136529
-0.0817692 0.391736 0.140403
-0.084499 0.390651 0.1443
-0.0909316 0.38954 0.148221
-0.0882158 0.388406 0.152167
-0.0935509 0.387246 0.156135
-0.0680927 0.386061 0.160128
-0.0684485 0.384852 0.164145
-0.0642345 0.383617 0.168185
-0.0951124 0.382358 0.17225
-0.07942 0.381074 0.176338
-0.0802013 0.379765 0.18045
-0.0670263 0.378432 0.184585
-0.0789731 0.377073 0.188745
-0.0777963 0.37569 0.192929
-0.068858 0.374282 0.197136
-0.0867989 0.372849 0.201367
-0.0755296 0.371391 0.205622
-0.0919176 0.369908 0.209901
-0.0627951 0.368401 0.214204
-0.0637854 0.366868 0.21853
-0.0650779 0.365311 0.22288
-0.0930804 0.363729 0.227255
-0.0779356 0.362122 0.231653
-0.0729788 0.36049 0.236074
-0.068934 0.358834 0.24052
-0.0686232 0.357152 0.24499
-0.0861934 0.355446 0.249483
-0.0632206 0.353715 0.254
