# .PCD v0.7 - Point Cloud Data file format
VERSION 0.7
FIELDS x y z
SIZE 4 4 4
TYPE F F F
COUNT 1 1 1
WIDTH 579
HEIGHT 1
VIEWPOINT 0 0 0 1 0 0 0
POINTS 579
DATA ascii
0.15847474 0.17676063 0.010152459
0.15859377 0.17846482 0.0056858063
0.1595484 0.17129241 0.0059784651
0.1602093 0.17265184 0.0030021667
0.16094488 0.17548145 -0.0027095079
0.16126752 0.17799507 0.0056577921
0.16075575 0.16510867 -0.011708617
0.16144204 0.17693318 -0.005515337
0.16173738 0.17520122 0.010335207
0.16306633 0.18291979 -0.020550847
0.16258919 0.16653492 -0.0157336
0.16343868 0.17934258 -0.0084197521
0.16313565 0.16911079 0.013688207
0.16378367 0.17463033 0.027876258
0.16370279 0.17181759 0.020605445
0.16376001 0.17097448 -0.013609529
0.16496372 0.17810433 0.019233227
0.16429865 0.16306786 -0.027486086
0.16589487 0.17774813 0.0028506517
0.16644502 0.18094276 0.010885835
0.16485882 0.16013168 -0.022918701
0.16437519 0.15225519 -0.037973642
0.16482043 0.15702544 -0.019636869
0.16648328 0.17319663 -0.0094977617
0.16390067 0.14481343 -0.037235975
0.16598302 0.16646324 -0.018184543
0.16581565 0.16292566 -0.040872097
0.16658258 0.17084174 0.017527103
0.16424543 0.14629439 -0.039980054
0.16717827 0.17643656 0.0037949085
0.16728723 0.17678981 9.7751617e-06
0.16779613 0.18006079 -0.029201627
0.16726077 0.17363603 0.0087511539
0.16596621 0.16056214 -0.0080605745
0.16719651 0.17240189 -0.018779993
0.16781324 0.17779459 0.00081264973
0.16502833 0.14925689 -0.033506632
0.16794592 0.17664792 0.019685984
0.1671738 0.16894157 0.012501121
0.16659325 0.15995248 -0.03646028
0.1688872 0.18091373 -0.0051116943
0.16814923 0.17100058 -0.00035750866
0.1685102 0.17385755 -0.0058488846
0.16883326 0.17410691 -0.0075221062
0.16937029 0.17798178 0.015953064
0.17021626 0.18531863 0.0067087412
0.16942024 0.17815383 -0.012554646
0.16814291 0.16664793 -0.009444356
0.16727269 0.15698142 -0.031980872
0.16959035 0.17654611 0.018497586
0.16697472 0.15248026 -0.024370551
0.1706202 0.17633934 0.0013481379
0.1697607 0.16928585 0.0146631
0.17233372 0.18870868 -0.0060837269
0.16760403 0.15067299 -0.0379287
0.16291034 0.11403808 -0.035000086
0.16801429 0.15214689 -0.040733695
0.17154145 0.17796473 0.01446569
0.17218643 0.179305 0.011466265
0.167476 0.1447047 -0.039952159
0.17217422 0.17873617 0.022254229
0.17108995 0.16945417 -5.9604645e-07
0.17150629 0.17201714 0.020059109
0.16614568 0.13340782 -0.04613781
0.17247176 0.17786445 0.019955397
0.17177552 0.17231776 -0.0057281256
0.17134464 0.16921161 0.012836218
0.17226964 0.17570205 -0.0035965443
0.17240417 0.17625351 3.9219856e-05
0.1709137 0.16509311 -0.008992672
0.17159593 0.1687655 -0.016070366
0.17351782 0.18067844 -0.0064043999
0.17118514 0.16200764 -0.014477253
0.16831595 0.14173493 -0.051415086
0.17383277 0.17689063 0.017131925
0.17369938 0.17475216 -0.0064302683
0.16913909 0.14465232 -0.041226983
0.17211312 0.16342887 -0.017666817
0.17058003 0.15366077 -0.045101762
0.17140025 0.15833382 -0.037617087
0.16708386 0.13032268 -0.057986498
0.17617458 0.18147315 -0.0047152042
0.17563653 0.17793907 -0.014303684
0.16902423 0.13804595 -0.055957556
0.1711663 0.15057002 -0.04064405
0.17373836 0.1648927 -0.021603703
0.17455685 0.16873606 -0.018481493
0.1751895 0.17224939 -0.008199811
0.170748 0.14321616 -0.055770278
0.17633009 0.17378743 0.023730636
0.17658246 0.17474343 -0.00069367886
0.16865212 0.13028263 -0.059213281
0.17702466 0.17611627 -0.0035630465
0.17104453 0.14324163 -0.040356874
0.17335343 0.153984 -0.01928556
0.17488497 0.16187328 -0.017243862
0.17738008 0.1749108 0.015274644
0.17570263 0.1657428 -0.014106035
0.16767204 0.12288837 -0.05828619
0.17663658 0.17008816 -0.02258873
0.178725 0.18057586 -0.007630825
0.17193371 0.1447432 -0.043511271
0.17713135 0.17192353 0.0039644241
0.17820543 0.17732702 -0.00040686131
0.16667163 0.11666574 -0.063705087
0.17901689 0.1803153 0.02538228
0.171462 0.14014472 -0.05136466
0.17453957 0.15535556 -0.035235286
0.17462516 0.15554142 -0.022887707
0.17371023 0.15065707 -0.04274714
0.17904401 0.17755382 0.018095255
0.17496485 0.1569006 -0.038000703
0.17836815 0.17371489 0.023150325
0.17409587 0.15214132 -0.04554975
0.17806625 0.16774867 0.028003097
0.17909789 0.17173876 0.018139362
0.17638701 0.1554824 -0.024222612
0.17788965 0.16193677 -0.019633651
0.17174304 0.13181366 -0.048211932
0.16637224 0.10559805 -0.041698337
0.16511983 0.10019834 -0.043135285
0.17187399 0.12867613 -0.059256911
0.16828656 0.1123946 -0.036576629
0.17045069 0.12133606 -0.057934642
0.1693638 0.11509825 -0.063307405
0.16760117 0.10718241 -0.044998407
0.17586428 0.1385114 -0.052320719
0.16779971 0.10678798 -0.058967948
0.17347795 0.12871866 -0.06044054
0.17672414 0.14004369 -0.055463433
0.17093742 0.11675517 -0.067209363
0.17242956 0.12131108 -0.059472203
0.17573595 0.1333497 -0.053715944
0.1782378 0.13853441 -0.038438439
0.17660338 0.13025591 -0.049436927
0.1658628 0.094196841 -0.049596667
0.17025495 0.1084197 -0.063223958
0.17218566 0.11346067 -0.063089848
0.17135942 0.11073039 -0.036515951
0.17855507 0.13340273 -0.056155801
0.17375958 0.11512335 -0.067001224
0.17066377 0.10550806 -0.044950724
0.16762221 0.093691543 -0.035556793
0.17705244 0.11816719 -0.058454394
0.17673081 0.11660869 -0.05573535
0.17397726 0.10553609 -0.047702909
0.17034829 0.096494779 -0.063306808
0.16360581 0.079856068 -0.039455295
0.17022699 0.092567071 -0.050791025
0.177894 0.10917567 -0.039239287
0.17446071 0.10037325 -0.054396749
0.17311114 0.097441927 -0.060121179
0.17154813 0.093592659 -0.038544774
0.17561167 0.10202473 -0.057975888
0.17791617 0.10547189 -0.050748706
0.17713255 0.10387431 -0.047741055
0.17827976 0.10590832 -0.034799814
0.16557842 0.07980381 -0.040952563
0.17305046 0.094153732 -0.055340767
0.17471498 0.096938685 -0.045856833
0.17841101 0.10045624 -0.057678938
0.16714549 0.080483109 -0.057784081
0.16623002 0.078840762 -0.054741621
0.17662984 0.096505895 -0.068499684
0.17284417 0.088336647 -0.053302407
0.17513287 0.09191753 -0.038891673
0.16763198 0.079756379 -0.042513728
0.17833215 0.09252888 -0.056983232
0.17721331 0.090414882 -0.038253903
0.1776942 0.090021342 -0.059677482
0.17143285 0.080429852 -0.061092615
0.17813009 0.088318437 -0.057362199
0.17508161 0.083092973 -0.053073525
0.17112941 0.078054249 -0.042822719
0.17208689 0.078189775 -0.043699384
0.16153407 0.066774637 -0.044344187
0.17244089 0.075416222 -0.054852605
0.17722559 0.076455891 -0.045307994
0.17629546 0.074823886 -0.04223299
0.16354352 0.064223453 -0.056891084
0.16994494 0.065090716 -0.048578382
0.16569531 0.063347965 -0.042877436
0.1666019 0.06248353 -0.056935787
0.17215765 0.059962619 -0.04308033
0.17803001 0.059127335 -0.06132865
0.17029548 0.059930976 -0.041733623
0.1787675 0.058278594 -0.046065927
0.17721975 0.055665154 -0.055805564
0.17408133 0.05393957 -0.051145554
0.17759216 0.052216131 -0.051534534
0.16870081 0.05292711 -0.057505131
0.17579621 0.04773045 -0.056115985
0.1749208 0.046043504 -0.053121805
0.16412699 0.054598 -0.056063294
0.176673 0.04179709 -0.063197374
0.17068899 0.04610106 -0.049848557
0.17580032 0.040092546 -0.060213685
0.17271966 0.041843209 -0.060101748
0.1675843 0.046977039 -0.063064218
0.16649711 0.047788929 -0.048696041
0.17768461 0.032287296 -0.063437223
0.17777246 0.030467 -0.060972214
0.17696583 0.028752673 -0.058046222
0.1781981 0.026314702 -0.070498466
0.17511922 0.028075784 -0.070337653
0.17235529 0.032237086 -0.059024215
0.17440701 0.026346803 -0.067491889
0.16927397 0.034000266 -0.058902502
0.17451453 0.021077782 -0.070626259
0.16969472 0.031501796 -0.070381284
0.17744553 0.013940591 -0.063661575
0.16220981 0.047801215 -0.045520782
0.16772091 0.03152455 -0.068835258
0.17234826 0.019240674 -0.066420317
0.17483383 0.011475112 -0.073350549
0.16419786 0.039242443 -0.061784267
0.17509854 0.0079450645 -0.069059491
0.17415053 0.0078641921 -0.068064928
0.16820288 0.024512582 -0.06024003
0.17794764 -0.0070306864 -0.064160109
0.16814506 0.022705063 -0.067730665
0.17753518 -0.0089104865 -0.061377764
0.16466224 0.033299986 -0.068713903
0.1767112 -0.011084586 -0.072655559
0.17864448 -0.018266708 -0.065322876
0.17864656 -0.020147488 -0.062862277
0.16919768 0.013951853 -0.057302833
0.17460346 -0.0071039777 -0.061293244
0.16956872 0.011418045 -0.068969011
0.16689783 0.020961344 -0.064516068
0.17824894 -0.028246077 -0.064440012
0.17240059 -0.010626387 -0.055131555
0.17052418 -0.0035142079 -0.0625453
0.17584985 -0.028239958 -0.062563539
0.16658413 0.013216764 -0.068867683
0.16521478 0.017506123 -0.058699727
0.17480493 -0.030289248 -0.073693156
0.17038822 -0.0093525872 -0.069636226
0.17776102 -0.047262687 -0.065344453
0.17445004 -0.032205775 -0.070991755
0.1745131 -0.035825886 -0.066667676
0.17661893 -0.047424406 -0.06429863
0.1649918 0.014016643 -0.054053426
0.17732775 -0.052899487 -0.058359385
0.1690833 -0.011135386 -0.066417456
0.17187053 -0.028267808 -0.059532881
0.1708042 -0.022799367 -0.065187097
0.17497164 -0.052549306 -0.071842909
0.16612458 -0.0034657065 -0.059132338
0.17343962 -0.052648976 -0.070405841
0.17601192 -0.070632145 -0.063023448
0.16957414 -0.030346427 -0.069320202
0.17134976 -0.045560576 -0.062327266
0.17249763 -0.054469466 -0.067503333
0.16822547 -0.032150157 -0.066099048
0.16503155 -0.0075173378 -0.067662597
0.1617344 0.017472465 -0.055805802
0.16927922 -0.045535617 -0.060707092
0.16632277 -0.022832036 -0.06180048
0.17210364 -0.077692464 -0.066626072
0.17056572 -0.06507013 -0.06516993
0.17385387 -0.099567041 -0.054816365
0.16967911 -0.066892356 -0.062329292
0.16750371 -0.048924327 -0.070027232
0.16301024 -0.0074884277 -0.066088676
0.16215998 0.0001363121 -0.060486674
0.16591012 -0.043684896 -0.060256839
0.16767412 -0.066863596 -0.060758471
0.16418236 -0.028486237 -0.067293048
0.16814935 -0.073942006 -0.067754388
0.16331989 -0.020993337 -0.061652422
0.16216052 -0.0093225278 -0.063316703
0.16317189 -0.030273616 -0.064332008
0.16083735 -0.0016147867 -0.057267427
0.16414917 -0.047066368 -0.06956327
0.16572607 -0.10287765 -0.059605956
0.1670149 -0.14537486 -0.039083362
0.16268098 -0.072031058 -0.065614581
0.16115212 -0.045196317 -0.069367766
0.16287607 -0.082689986 -0.065160751
0.16064227 -0.064614698 -0.072489142
0.16024137 -0.057589937 -0.065641642
0.16040939 -0.082664996 -0.063261867
0.15934902 -0.11102895 -0.055564165
0.15413201 -0.14019506 -0.046419621
0.13997149 0.15334918 0.11307919
0.15641141 0.17118944 0.020384312
0.15982461 0.17887209 0.027358532
0.16007739 0.18256618 0.00058615208
0.16050452 0.17698883 0.022269249
0.16274476 0.18066274 -0.005094409
0.16293812 0.18334307 0.0021816492
0.16289335 0.17689575 0.02154088
0.16484272 0.17680608 0.020957112
0.16618216 0.17582338 0.018122435
0.16874516 0.17663263 0.019800901
0.14956468 -0.15291467 0.043799996
0.14851087 -0.16775776 0.035351515
0.14824909 -0.1358825 0.052578449
0.14876521 -0.10808057 0.067337275
0.14933425 -0.084934749 0.088267684
0.14604419 -0.15591414 0.040781617
0.1482197 -0.084920675 0.088431358
0.14967912 -0.057489455 0.10271907
0.14525545 -0.13353366 0.045783877
0.1495831 -0.048536189 0.10287166
0.14789891 -0.071227096 0.094750166
0.14358938 -0.13737769 0.051840782
0.15020633 -0.031435747 0.10590577
0.14899898 -0.045572937 0.10738587
0.1416316 -0.14500257 0.042275906
0.14996326 -0.024735168 0.10488296
0.14738083 -0.05993595 0.099945307
0.14316511 -0.11553028 0.058676958
0.14162159 -0.13647316 0.042774558
0.14128661 -0.13725927 0.052562594
0.14151913 -0.13185684 0.049085617
0.14890337 -0.031413957 0.10615206
0.14804083 -0.041169688 0.10486007
0.1502682 -0.0068899076 0.10794115
0.1483525 -0.028423376 0.11064291
0.1404081 -0.11540094 0.059565544
0.14625281 -0.048468895 0.10383999
0.14189959 -0.092286617 0.080000281
0.14612198 -0.041044235 0.10549247
0.13894087 -0.11384892 0.06218493
0.14251971 -0.074120596 0.092172861
0.14049578 -0.090659007 0.082557678
0.14158654 -0.078521028 0.086262703
0.15040964 0.0082983226 0.096331716
0.14264071 -0.064216428 0.095150709
0.14651525 -0.027450787 0.10169232
0.14423394 -0.048341848 0.10450542
0.14284873 -0.059667595 0.10145605
0.14706844 -0.018678628 0.10197294
0.139009 -0.089027464 0.085149407
0.13751119 -0.079934247 0.085364819
0.13829553 -0.073859647 0.093566775
0.14435071 -0.027396828 0.10247457
0.1458208 -0.015723547 0.10675716
0.14175892 -0.045329686 0.10057056
0.14346159 -0.032576796 0.10581601
0.14076251 -0.049653135 0.10354364
0.14438629 -0.023001237 0.10897064
0.14808685 0.0043581128 0.10391486
0.1463688 -0.006981628 0.095808864
0.13450998 -0.090354659 0.084365726
0.13349496 -0.094881728 0.078570008
0.14519215 -0.012411818 0.10094631
0.13701159 -0.066976562 0.092835784
0.13296889 -0.088794634 0.087057352
0.13485777 -0.075195089 0.092613697
0.14763081 0.0069893934 0.095086217
0.13875967 -0.049600117 0.10427415
0.13632655 -0.063891828 0.097325563
0.13881946 -0.046638057 0.099412918
0.14491165 -0.0058526974 0.099922299
0.13078606 -0.088653207 0.087794423
0.14376754 -0.010884527 0.10361445
0.13927537 -0.036822759 0.10079813
0.13135225 -0.078110047 0.089614391
0.14088953 -0.021217126 0.099691272
0.14106995 -0.018374808 0.10381615
0.14953482 0.026679572 0.09039557
0.13648283 -0.042089436 0.10673225
0.13296354 -0.056755677 0.095527887
0.13634145 -0.038116395 0.099629641
0.14992046 0.031930346 0.11935365
0.14296782 -0.00097422674 0.096806049
0.14851916 0.025946941 0.10088313
0.13452697 -0.036533058 0.1024214
0.14318627 0.0035523325 0.090832591
0.14481771 0.011032071 0.091027498
0.13531286 -0.031311948 0.099093914
0.14944911 0.032782931 0.10671592
0.12907672 -0.055001579 0.099009156
0.14882636 0.03017034 0.1274004
0.13848734 -0.013995957 0.088882923
0.1391992 -0.010680256 0.10523117
0.13865948 -0.011207467 0.09304738
0.12873042 -0.050662287 0.096361637
0.13479769 -0.025250128 0.095047235
0.14756882 0.026801132 0.09104073
0.13321215 -0.031169988 0.099813938
0.14837688 0.030649725 0.11743796
0.13026351 -0.040688656 0.097385287
0.13122213 -0.036432289 0.10344386
0.14694232 0.026551042 0.10230887
0.13353962 -0.023707837 0.097657442
0.14919353 0.035468865 0.1113168
0.1426574 0.011164293 0.091751575
0.13057649 -0.034050837 0.096260071
0.13628447 -0.011930488 0.10403883
0.13686848 -0.0096811578 0.095865965
0.13961947 0.00097901374 0.087590814
0.14817649 0.032715935 0.087179184
0.1471802 0.030293632 0.12795293
0.13212906 -0.022238396 0.10038674
0.14741272 0.031994376 0.12006593
0.14445603 0.023289163 0.086127162
0.14895713 0.038155403 0.11591411
0.13279217 -0.014654737 0.10090792
0.13336021 -0.012300247 0.092654467
0.13743913 0.0011140928 0.088324547
0.13538396 -0.0019936562 0.097241521
0.14837933 0.038041096 0.096125484
0.13096124 -0.014593877 0.10139346
0.14331919 0.024034232 0.099053979
0.14908892 0.04205687 0.12271583
0.14229941 0.023420863 0.086848974
0.13520819 0.0039958432 0.093356609
0.14868009 0.041358296 0.11067212
0.13570857 0.007431753 0.087431431
0.14446789 0.030836735 0.11882174
0.14619952 0.03556427 0.082710743
0.147304 0.038750883 0.13139248
0.14789402 0.04137503 0.11075306
0.13508105 0.010168474 0.092161059
0.13850302 0.018638663 0.1106745
0.13783765 0.017458692 0.089556575
0.1477077 0.042031836 0.093557
0.14172339 0.028697912 0.083995223
0.13157785 0.0055554211 0.096888304
0.13854361 0.023968264 0.11954975
0.13277692 0.012148462 0.10144114
0.14505363 0.03833643 0.11728525
0.14483452 0.037901644 0.098724723
0.1368733 0.022390462 0.086447477
0.14607435 0.041422863 0.1114161
0.1446681 0.038683202 0.08851409
0.13943213 0.028425723 0.11608028
0.12973039 0.012247302 0.10238254
0.14003003 0.032760199 0.091163635
0.1368084 0.027265795 0.11472833
0.14021897 0.033338156 0.10986388
0.13189608 0.018927723 0.1128943
0.13795877 0.031197194 0.12095284
0.14466965 0.042831156 0.11417425
0.13994437 0.035953511 0.11454129
0.13455456 0.028666515 0.11766982
0.13289446 0.028803136 0.11824954
0.13619578 0.033536185 0.11130297
0.14284289 0.04296254 0.11479735
0.14148664 0.041526552 0.094124675
0.13541758 0.033483345 0.11144912
0.13106221 0.028947715 0.11889803
0.1343689 0.034902479 0.11408472
0.14198762 0.044280116 0.11741102
0.12727726 0.026437823 0.11577165
0.12561208 0.026580423 0.11636305
0.14941889 0.053893376 0.11824071
0.13060462 0.032414656 0.11091614
0.13937992 0.04314613 0.11603415
0.1357069 0.039384704 0.11031651
0.14547008 0.050252426 0.11272466
0.1271075 0.032616805 0.11219549
0.13388515 0.039445121 0.1110028
0.13302684 0.040848631 0.11358106
0.13119829 0.040991951 0.1142267
0.12741351 0.03853618 0.11106145
0.14519536 0.0528883 0.11738122
0.14183748 0.05043171 0.11400688
0.14719522 0.054634806 0.10896301
0.13479447 0.045614336 0.10734081
0.13086331 0.044465382 0.10631192
0.14045703 0.051826995 0.11677408
0.13991195 0.052469511 0.1069144
0.1378032 0.051910233 0.11756933
0.12797618 0.048565466 0.1142534
0.14398372 0.056143064 0.11235082
0.13590777 0.052751083 0.10830629
0.1404506 0.056325916 0.11360943
0.13310969 0.05546071 0.11376262
0.13688326 0.05682702 0.10274076
0.13816965 0.057665695 0.11658752
0.13653338 0.057798956 0.11715615
0.14252931 0.059083421 0.10535836
0.13362837 0.059427593 0.10841119
0.13180697 0.059567634 0.10904896
0.14890397 0.06097972 0.11983871
0.13760757 0.060550015 0.10944378
0.13479996 0.061472815 0.10038221
0.13658345 0.061909746 0.11210215
0.13378185 0.062742159 0.10309625
0.14305627 0.062808603 0.11212611
0.14667159 0.062632844 0.11085439
0.15056306 0.062379014 0.10954559
0.14022934 0.066174656 0.10774064
0.14610028 0.064620569 0.10355663
0.14984965 0.064964339 0.11438549
0.15041554 0.065669477 0.10437286
0.13162243 0.081191435 0.1113286
0.1494453 0.067004099 0.10699594
0.13465595 0.079716638 0.10791445
0.13646102 0.080943376 0.10972989
0.13496649 0.083417445 0.11481464
0.13808942 0.080812201 0.10916662
0.13574737 0.085336655 0.10343909
0.13716888 0.084102228 0.10055399
0.14840317 0.07146585 0.1009289
0.14691848 0.074008599 0.10587406
0.14069307 0.083921969 0.099302173
0.14156914 0.08304292 0.11261547
0.14399064 0.080479249 0.10707486
0.13444602 0.095810458 0.11408782
0.14665949 0.076528639 0.11058891
0.13670826 0.093211785 0.10858047
0.13695639 0.096827149 0.11555123
0.13842833 0.094334021 0.11049056
0.13611817 0.10128887 0.10955465
0.1359632 0.10238276 0.11184859
0.14118654 0.092991218 0.10714436
0.13472438 0.10769103 0.11045134
0.13781226 0.10115583 0.10896528
0.14100361 0.095434383 0.11189663
0.14373368 0.090978593 0.1123116
0.14727366 0.082722753 0.11060739
0.13966358 0.10109954 0.10827696
0.14126861 0.097407117 0.10065842
0.13593537 0.11207603 0.10379589
0.13854009 0.10863407 0.11162615
0.13957053 0.10745035 0.10885882
0.14686656 0.087638557 0.12009013
0.1386764 0.11077924 0.10043192
0.13842624 0.1131344 0.10525882
0.1449877 0.095159054 0.11051273
0.13755381 0.118378 0.10382438
0.13969243 0.11205612 0.1181618
0.14126086 0.10731967 0.10827386
0.13779807 0.12061827 0.10834539
0.14232004 0.1060589 0.10554636
0.13932621 0.11824368 0.10320699
0.14425838 0.10437353 0.11373901
0.13680893 0.13183342 0.10600579
0.15040135 0.082646072 0.10967278
0.13774192 0.13062976 0.10328209
0.14108825 0.11819179 0.10255539
0.13997173 0.12391679 0.099033117
0.14327824 0.11396761 0.10594106
0.14145154 0.12269218 0.096131802
0.14007795 0.12938385 0.10022914
0.1429472 0.1180592 0.10191286
0.15052551 0.086256728 0.11664927
0.14242947 0.12274796 0.095927596
0.14691114 0.10305996 0.11044061
0.14067477 0.13272168 0.10719907
0.14834714 0.097343013 0.11404717
0.14514744 0.11278737 0.10306954
0.14264077 0.13040175 0.10169339
0.14583212 0.11503054 0.10739172
0.14348215 0.13163219 0.088189006
0.14241189 0.1412787 0.096373796
0.14930069 0.1018429 0.10740638
0.14490861 0.13044648 0.085309625
0.14673287 0.12011497 0.10535347
0.14609092 0.13240692 0.10528421
0.14955628 0.1092311 0.11026704
0.14728469 0.12695156 0.10379827
0.14686066 0.13040368 0.084614992
0.14572877 0.13997032 0.092827082
0.1487 0.11766858 0.099946737
0.1485846 0.11998753 0.1047219
0.15057766 0.1064489 0.1164062
0.14969629 0.11598651 0.10861087
0.14997864 0.11372013 0.10375035
0.15008235 0.11380664 0.11937869
0.14661443 0.1464061 0.076785326
0.14852303 0.13000602 0.099673033
0.14720726 0.14466135 0.086336017
0.14838827 0.13722546 0.086367607
0.14955008 0.12681703 0.10302424
0.14905787 0.1333387 0.10664916
0.14864236 0.13876174 0.089403629
0.14813995 0.14526677 0.073861718
0.15060961 0.12569299 0.10025179
0.1492371 0.14200269 0.096395969
0.14928532 0.15527381 0.065939069
0.15023226 0.14347802 0.082887053
0.15028858 0.1535473 0.075451255
